29.15885162 1.84803271 4.16151619 19.250000 1607017195538219008.000000 4.161516 4.161516
-11.82293129 1.95555282 4.13169003 27.028570 1607017195538219008.000000 4.131690 4.131690
-11.77884960 1.93532372 4.13055515 26.166666 1607017195538219008.000000 4.130555 4.130555
29.26301003 1.92231071 4.16177416 8.666667 1607017195538219008.000000 4.161774 4.161774
-11.85196686 2.03978562 4.14454222 15.175000 1607017195538219008.000000 4.144542 4.144542
-19.88315392 3.16531134 4.19763660 17.500000 1607017195538219008.000000 4.197637 4.197637
35.67692566 3.14388156 4.14687109 10.500000 1607017195538219008.000000 4.146871 4.146871
-19.84347916 3.26855230 4.19579220 19.000000 1607017195538219008.000000 4.195792 4.195792
35.66597748 3.36909652 4.15771055 8.000000 1607017195538219008.000000 4.157711 4.157711
-20.00806618 3.40919065 4.14985085 4.000000 1607017195538219008.000000 4.149851 4.149851
-19.83356476 3.45176244 4.11417580 20.000000 1607017195538219008.000000 4.114176 4.114176
-19.84284019 3.55294919 4.13262129 15.000000 1607017195538219008.000000 4.132621 4.132621
-19.83540154 3.62642527 4.13942623 12.625000 1607017195538219008.000000 4.139426 4.139426
-19.77452850 3.68514061 4.16151237 11.000000 1607017195538219008.000000 4.161512 4.161512
-19.80095863 3.74236059 4.16638899 14.500000 1607017195538219008.000000 4.166389 4.166389
-19.77538109 3.72280407 4.14938068 12.000000 1607017195538219008.000000 4.149381 4.149381
-19.82516479 3.80121088 4.13899374 12.000000 1607017195538219008.000000 4.138994 4.138994
27.81157303 4.73832464 4.18307495 13.000000 1607017195538219008.000000 4.183075 4.183075
27.74343872 4.84396553 4.17522907 26.000000 1607017195538219008.000000 4.175229 4.175229
27.80476570 4.89482975 4.11509705 4.000000 1607017195538219008.000000 4.115097 4.115097
27.69823456 4.97039747 4.19546986 11.000000 1607017195538219008.000000 4.195470 4.195470
-16.76203537 5.06511402 4.15334558 6.000000 1607017195538219008.000000 4.153346 4.153346
-16.67922401 5.08497715 4.13901854 6.000000 1607017195538219008.000000 4.139019 4.139019
-16.57061768 5.09582376 4.11790323 9.000000 1607017195538219008.000000 4.117903 4.117903
27.69198990 5.07617140 4.13457632 21.000000 1607017195538219008.000000 4.134576 4.134576
27.76163864 5.02500153 4.12524128 30.000000 1607017195538219008.000000 4.125241 4.125241
-17.05545616 5.17480993 4.12406921 4.000000 1607017195538219008.000000 4.124069 4.124069
-16.48902893 5.16330528 4.11145401 11.000000 1607017195538219008.000000 4.111454 4.111454
-16.27055740 5.16821337 4.14561844 11.000000 1607017195538219008.000000 4.145618 4.145618
27.67343521 5.14101219 4.15391254 11.000000 1607017195538219008.000000 4.153913 4.153913
27.73653412 5.12510300 4.16658020 16.666666 1607017195538219008.000000 4.166580 4.166580
27.81365776 5.11696529 4.10685062 34.000000 1607017195538219008.000000 4.106851 4.106851
-17.03785896 5.25282621 4.14754581 5.714286 1607017195538219008.000000 4.147546 4.147546
-16.98388100 5.26818848 4.14960480 6.666667 1607017195538219008.000000 4.149605 4.149605
-16.72791100 5.28184700 4.18009710 9.500000 1607017195538219008.000000 4.180097 4.180097
-16.64085960 5.26843596 4.14040613 10.000000 1607017195538219008.000000 4.140406 4.140406
-16.55387688 5.27043104 4.16966581 10.000000 1607017195538219008.000000 4.169666 4.169666
-16.44726181 5.27483940 4.17898512 10.000000 1607017195538219008.000000 4.178985 4.178985
-16.34539032 5.26347733 4.14567947 7.000000 1607017195538219008.000000 4.145679 4.145679
-16.28297424 5.20649052 4.11041784 8.000000 1607017195538219008.000000 4.110418 4.110418
27.73097992 5.20963240 4.17480993 11.000000 1607017195538219008.000000 4.174810 4.174810
-17.02678680 5.30558205 4.18468523 6.500000 1607017195538219008.000000 4.184685 4.184685
-16.94952583 5.33846378 4.13114929 5.200000 1607017195538219008.000000 4.131149 4.131149
-16.83182526 5.32050276 4.14020920 7.500000 1607017195538219008.000000 4.140209 4.140209
-16.75514030 5.37584257 4.15805006 7.666667 1607017195538219008.000000 4.158050 4.158050
-16.54395103 5.33897114 4.16498566 10.400000 1607017195538219008.000000 4.164986 4.164986
-16.44703674 5.33829117 4.15786886 7.500000 1607017195538219008.000000 4.157869 4.157869
-16.36027145 5.37000895 4.14056587 11.000000 1607017195538219008.000000 4.140566 4.140566
27.70487595 5.34427595 4.10173225 26.000000 1607017195538219008.000000 4.101732 4.101732
-16.92876434 5.44068623 4.11536980 14.000000 1607017195538219008.000000 4.115370 4.115370
-16.55081177 5.45660830 4.16911268 12.375000 1607017195538219008.000000 4.169113 4.169113
-16.45685768 5.44023800 4.15527201 11.857142 1607017195538219008.000000 4.155272 4.155272
-16.34152222 5.46761560 4.15750980 12.250000 1607017195538219008.000000 4.157510 4.157510
-16.24555588 5.47408485 4.13705301 11.666667 1607017195538219008.000000 4.137053 4.137053
28.03367043 5.44297028 4.11440229 1.000000 1607017195538219008.000000 4.114402 4.114402
-16.54129028 5.54791212 4.14909887 8.000000 1607017195538219008.000000 4.149099 4.149099
-16.43778992 5.55236769 4.15947533 9.000000 1607017195538219008.000000 4.159475 4.159475
-16.32032394 5.56105804 4.17476845 10.500000 1607017195538219008.000000 4.174768 4.174768
-16.24754715 5.56646681 4.12589359 10.125000 1607017195538219008.000000 4.125894 4.125894
-16.14893532 5.54294348 4.15162992 7.166667 1607017195538219008.000000 4.151630 4.151630
-16.02978325 5.56670618 4.12407351 10.200000 1607017195538219008.000000 4.124074 4.124074
-16.58894730 5.62855387 4.13806581 16.000000 1607017195538219008.000000 4.138066 4.138066
-16.42292786 5.64834070 4.15960217 10.000000 1607017195538219008.000000 4.159602 4.159602
-16.30118752 5.67009401 4.14466238 6.000000 1607017195538219008.000000 4.144662 4.144662
-16.25816917 5.65130663 4.14093733 10.000000 1607017195538219008.000000 4.140937 4.140937
-16.15575409 5.65147257 4.16435623 8.500000 1607017195538219008.000000 4.164356 4.164356
-16.05242348 5.65219879 4.14267492 9.583333 1607017195538219008.000000 4.142675 4.142675
-15.95515251 5.67816019 4.12033939 7.500000 1607017195538219008.000000 4.120339 4.120339
-15.75257492 5.67741394 4.14950275 6.500000 1607017195538219008.000000 4.149503 4.149503
-16.31716156 5.71688271 4.18627644 10.000000 1607017195538219008.000000 4.186276 4.186276
-16.15929794 5.74506521 4.15256023 9.400000 1607017195538219008.000000 4.152560 4.152560
-15.94058990 5.74145031 4.14316702 11.000000 1607017195538219008.000000 4.143167 4.143167
-15.85760880 5.73714066 4.15722466 9.666667 1607017195538219008.000000 4.157225 4.157225
-15.76040268 5.74627733 4.14356709 9.062500 1607017195538219008.000000 4.143567 4.143567
-15.65727711 5.74001074 4.17775536 11.666667 1607017195538219008.000000 4.177755 4.177755
-15.57465076 5.74106312 4.16892910 9.000000 1607017195538219008.000000 4.168929 4.168929
-16.23088074 5.81876945 4.19952822 6.000000 1607017195538219008.000000 4.199528 4.199528
-16.16181183 5.81839180 4.14772034 9.000000 1607017195538219008.000000 4.147720 4.147720
-15.91559696 5.87372684 4.11228848 9.000000 1607017195538219008.000000 4.112288 4.112288
-15.84078407 5.88532114 4.16631031 8.500000 1607017195538219008.000000 4.166310 4.166310
-15.75249481 5.83712626 4.16579151 8.200000 1607017195538219008.000000 4.165792 4.165792
-15.62106514 5.82935238 4.16790342 10.000000 1607017195538219008.000000 4.167903 4.167903
-15.57785702 5.82493734 4.15056610 8.333333 1607017195538219008.000000 4.150566 4.150566
-16.99774361 5.98142815 4.16448259 1.000000 1607017195538219008.000000 4.164483 4.164483
-15.93963909 5.95038319 4.15857744 8.750000 1607017195538219008.000000 4.158577 4.158577
-15.85415077 5.96074390 4.17217922 9.400000 1607017195538219008.000000 4.172179 4.172179
-15.73501682 5.97406006 4.18966007 4.000000 1607017195538219008.000000 4.189660 4.189660
-15.69434166 5.91041183 4.19709158 3.000000 1607017195538219008.000000 4.197092 4.197092
-16.11290550 6.05587435 4.18051910 10.000000 1607017195538219008.000000 4.180519 4.180519
-16.07255936 6.06903076 4.15190029 9.000000 1607017195538219008.000000 4.151900 4.151900
-15.95345116 6.02935696 4.12452698 6.000000 1607017195538219008.000000 4.124527 4.124527
-15.82602978 6.03079844 4.14885187 8.500000 1607017195538219008.000000 4.148852 4.148852
-15.74703407 6.03589678 4.12126541 4.500000 1607017195538219008.000000 4.121265 4.121265
-15.67392349 6.05198717 4.11857414 7.000000 1607017195538219008.000000 4.118574 4.118574
-16.20647240 6.13965988 4.17443562 10.000000 1607017195538219008.000000 4.174436 4.174436
-16.14164352 6.14549303 4.13900328 5.666667 1607017195538219008.000000 4.139003 4.139003
-16.06003761 6.15939999 4.19033432 8.500000 1607017195538219008.000000 4.190334 4.190334
-15.96855164 6.16620445 4.17259932 9.000000 1607017195538219008.000000 4.172599 4.172599
-15.86434937 6.16794443 4.14979315 8.200000 1607017195538219008.000000 4.149793 4.149793
-15.76295948 6.10852909 4.18040752 8.000000 1607017195538219008.000000 4.180408 4.180408
-15.69487762 6.15325689 4.13639784 9.000000 1607017195538219008.000000 4.136398 4.136398
-16.38909912 6.24545097 4.16467428 10.000000 1607017195538219008.000000 4.164674 4.164674
-16.20476341 6.22176075 4.19315577 6.000000 1607017195538219008.000000 4.193156 4.193156
-16.19950485 6.21063709 4.13904667 5.000000 1607017195538219008.000000 4.139047 4.139047
-16.09132385 6.28525543 4.17782116 8.000000 1607017195538219008.000000 4.177821 4.177821
-15.93325520 6.24777126 4.16434622 7.800000 1607017195538219008.000000 4.164346 4.164346
-15.87197685 6.23900890 4.15307856 5.000000 1607017195538219008.000000 4.153079 4.153079
-15.73094559 6.25776196 4.15155554 5.500000 1607017195538219008.000000 4.151556 4.151556
-16.22948074 6.36944628 4.19117308 9.000000 1607017195538219008.000000 4.191173 4.191173
-16.13619995 6.38524342 4.11714363 10.000000 1607017195538219008.000000 4.117144 4.117144
-16.02175140 6.34017563 4.14515352 12.333333 1607017195538219008.000000 4.145154 4.145154
-15.95515823 6.35693979 4.15615892 9.500000 1607017195538219008.000000 4.156159 4.156159
-15.85520267 6.38800812 4.16362810 9.666667 1607017195538219008.000000 4.163628 4.163628
-15.75259876 6.35515404 4.14568281 6.166667 1607017195538219008.000000 4.145683 4.145683
-15.68611050 6.33525038 4.18319893 9.000000 1607017195538219008.000000 4.183199 4.183199
-16.30907249 6.47981787 4.19232512 37.000000 1607017195538219008.000000 4.192325 4.192325
-16.22299767 6.45859909 4.15228081 15.000000 1607017195538219008.000000 4.152281 4.152281
-16.13668060 6.48154402 4.15990782 13.333333 1607017195538219008.000000 4.159908 4.159908
-15.95072269 6.45438957 4.13387823 10.666667 1607017195538219008.000000 4.133878 4.133878
-15.84129906 6.44962454 4.15383196 7.400000 1607017195538219008.000000 4.153832 4.153832
-15.75796700 6.45870686 4.15749836 8.166667 1607017195538219008.000000 4.157498 4.157498
-15.67857838 6.44583273 4.16835642 6.200000 1607017195538219008.000000 4.168356 4.168356
-15.59575272 6.46783018 4.13987732 3.000000 1607017195538219008.000000 4.139877 4.139877
-15.49660969 6.49709606 4.12631035 3.000000 1607017195538219008.000000 4.126310 4.126310
-16.17277336 6.55301619 4.18626070 10.000000 1607017195538219008.000000 4.186261 4.186261
-16.09492111 6.53269958 4.19612408 17.000000 1607017195538219008.000000 4.196124 4.196124
-15.99762344 6.59674931 4.15596628 13.000000 1607017195538219008.000000 4.155966 4.155966
-15.87211132 6.55310869 4.15452623 9.333333 1607017195538219008.000000 4.154526 4.154526
-15.75142002 6.56334257 4.16873598 5.833333 1607017195538219008.000000 4.168736 4.168736
-15.65521812 6.56326056 4.16237879 5.500000 1607017195538219008.000000 4.162379 4.162379
-16.32579803 6.66939068 4.18760729 14.000000 1607017195538219008.000000 4.187607 4.187607
-16.26466370 6.64030504 4.16991234 5.000000 1607017195538219008.000000 4.169912 4.169912
-15.94331264 6.69091177 4.12858582 1.000000 1607017195538219008.000000 4.128586 4.128586
-15.84488678 6.64409256 4.11688423 3.500000 1607017195538219008.000000 4.116884 4.116884
-15.78468323 6.61858273 4.19103003 2.500000 1607017195538219008.000000 4.191030 4.191030
-15.64511776 6.67613935 4.10291958 1.666667 1607017195538219008.000000 4.102920 4.102920
-16.04119110 6.71444416 4.15846825 5.000000 1607017195538219008.000000 4.158468 4.158468
-15.95753670 6.73758745 4.13634777 4.000000 1607017195538219008.000000 4.136348 4.136348
-15.65500355 6.75413704 4.15578032 5.333333 1607017195538219008.000000 4.155780 4.155780
-15.56974792 6.78188181 4.10312319 1.000000 1607017195538219008.000000 4.103123 4.103123
-16.20555115 6.89908314 4.11301804 4.000000 1607017195538219008.000000 4.113018 4.113018
36.51366043 7.44900036 4.15985203 24.000000 1607017195538219008.000000 4.159852 4.159852
36.51353836 7.53255987 4.15961838 33.000000 1607017195538219008.000000 4.159618 4.159618
26.33141899 8.25870228 4.14105701 4.333333 1607017195538219008.000000 4.141057 4.141057
25.99361038 8.30097103 4.10758066 20.000000 1607017195538219008.000000 4.107581 4.107581
26.49977493 8.31954479 4.16745186 6.000000 1607017195538219008.000000 4.167452 4.167452
26.11111641 8.43463802 4.11232805 10.000000 1607017195538219008.000000 4.112328 4.112328
26.36755371 8.44187641 4.10406971 6.000000 1607017195538219008.000000 4.104070 4.104070
26.43511009 8.46855927 4.13840675 6.500000 1607017195538219008.000000 4.138407 4.138407
26.51143265 8.41165924 4.17899895 7.000000 1607017195538219008.000000 4.178999 4.178999
26.60830307 8.45231724 4.16595411 3.000000 1607017195538219008.000000 4.165954 4.165954
26.39863014 8.58502388 4.10511541 12.000000 1607017195538219008.000000 4.105115 4.105115
26.43710518 8.55478954 4.14156389 9.500000 1607017195538219008.000000 4.141564 4.141564
26.53490067 8.50711918 4.17411375 2.000000 1607017195538219008.000000 4.174114 4.174114
41.31705093 8.55487537 4.12610579 20.000000 1607017195538219008.000000 4.126106 4.126106
26.18506622 8.67005920 4.13003492 11.000000 1607017195538219008.000000 4.130035 4.130035
26.39470673 8.62648773 4.18037987 9.333333 1607017195538219008.000000 4.180380 4.180380
26.42489243 8.62752056 4.12110996 21.250000 1607017195538219008.000000 4.121110 4.121110
26.24718857 8.79644012 4.16167736 2.000000 1607017195538219008.000000 4.161677 4.161677
26.36329460 8.73453808 4.19084358 5.500000 1607017195538219008.000000 4.190844 4.190844
26.46435356 8.71321774 4.12335682 6.500000 1607017195538219008.000000 4.123357 4.123357
36.52971268 10.83174610 4.19439697 5.000000 1607017195538219008.000000 4.194397 4.194397
23.29531670 14.78151321 4.13978815 22.000000 1607017195538219008.000000 4.139788 4.139788
23.37310028 14.77580452 4.16087341 23.000000 1607017195538219008.000000 4.160873 4.160873
23.27013397 14.84313488 4.12185431 20.805555 1607017195538219008.000000 4.121854 4.121854
23.35823631 14.81737709 4.11120892 11.000000 1607017195538219008.000000 4.111209 4.111209
23.21839142 14.93298149 4.12050247 14.000000 1607017195538219008.000000 4.120502 4.120502
23.31065369 14.93339634 4.13034010 9.000000 1607017195538219008.000000 4.130340 4.130340
23.28791046 15.03295708 4.10550404 4.000000 1607017195538219008.000000 4.105504 4.105504
22.88176727 17.85673904 4.12489510 21.000000 1607017195538219008.000000 4.124895 4.124895
22.93388748 17.83901596 4.11887884 13.000000 1607017195538219008.000000 4.118879 4.118879
22.06587219 21.38128662 4.16483927 1.000000 1607017195538219008.000000 4.164839 4.164839
22.15905762 21.33282089 4.19504547 7.000000 1607017195538219008.000000 4.195045 4.195045
22.07469749 21.42901039 4.18717098 13.500000 1607017195538219008.000000 4.187171 4.187171
22.15125656 21.40267181 4.18757010 9.000000 1607017195538219008.000000 4.187570 4.187570
21.83919334 21.57316780 4.18247604 4.333333 1607017195538219008.000000 4.182476 4.182476
21.95916367 21.55835152 4.14048529 12.000000 1607017195538219008.000000 4.140485 4.140485
21.66876221 21.67170715 4.11901808 1.000000 1607017195538219008.000000 4.119018 4.119018
21.75095367 21.68949509 4.15540838 6.250000 1607017195538219008.000000 4.155408 4.155408
21.84836388 21.65674210 4.16465902 11.000000 1607017195538219008.000000 4.164659 4.164659
21.93764687 21.61573029 4.13994455 7.000000 1607017195538219008.000000 4.139945 4.139945
22.27209091 21.64282227 4.18129539 2.000000 1607017195538219008.000000 4.181295 4.181295
21.65252686 21.75766563 4.16010475 5.166667 1607017195538219008.000000 4.160105 4.160105
21.76674652 21.73257446 4.16310930 12.833333 1607017195538219008.000000 4.163109 4.163109
22.40376663 21.72259521 4.11415005 0.000000 1607017195538219008.000000 4.114150 4.114150
21.78669167 21.84684181 4.14251375 6.333333 1607017195538219008.000000 4.142514 4.142514
22.30113220 21.85464859 4.11646223 0.000000 1607017195538219008.000000 4.116462 4.116462
21.66565704 21.90936852 4.17016649 5.500000 1607017195538219008.000000 4.170166 4.170166
21.79322433 21.99769974 4.18874836 0.000000 1607017195538219008.000000 4.188748 4.188748
21.91468048 21.98253059 4.18571568 1.000000 1607017195538219008.000000 4.185716 4.185716
21.70139694 22.03226471 4.13111925 1.000000 1607017195538219008.000000 4.131119 4.131119
21.86048508 22.09286308 4.17268801 8.000000 1607017195538219008.000000 4.172688 4.172688
21.63023758 22.15599060 4.18489265 2.000000 1607017195538219008.000000 4.184893 4.184893
21.72347260 22.14842606 4.16430950 3.750000 1607017195538219008.000000 4.164310 4.164310
21.87833405 22.12207413 4.10762691 5.000000 1607017195538219008.000000 4.107627 4.107627
21.82347107 22.20384598 4.10285807 5.000000 1607017195538219008.000000 4.102858 4.102858
-28.18006325 -44.05635834 4.25504541 23.000000 1607017195538219008.000000 4.255045 4.255045
-22.88445473 -40.58688736 4.24145079 13.000000 1607017195538219008.000000 4.241451 4.241451
-23.48718262 -40.45170593 4.23605537 13.000000 1607017195538219008.000000 4.236055 4.236055
-28.60580063 -38.92073059 4.23287678 26.000000 1607017195538219008.000000 4.232877 4.232877
-11.45233250 -34.25179672 4.24793768 8.000000 1607017195538219008.000000 4.247938 4.247938
-15.82472801 -32.85336685 4.23116779 14.000000 1607017195538219008.000000 4.231168 4.231168
-16.01433754 -32.71355438 4.23783779 8.000000 1607017195538219008.000000 4.237838 4.237838
-15.89458084 -32.72872543 4.22448444 9.000000 1607017195538219008.000000 4.224484 4.224484
-15.76531982 -32.73152924 4.21173668 9.000000 1607017195538219008.000000 4.211737 4.211737
-16.32439423 -32.64401245 4.29895210 9.000000 1607017195538219008.000000 4.298952 4.298952
-15.90947914 -32.66918945 4.24262714 14.000000 1607017195538219008.000000 4.242627 4.242627
-16.34589005 -32.56939316 4.24677992 18.000000 1607017195538219008.000000 4.246780 4.246780
-8.90769577 -31.50127220 4.24826431 6.000000 1607017195538219008.000000 4.248264 4.248264
-8.70956039 -31.44063568 4.23503876 7.000000 1607017195538219008.000000 4.235039 4.235039
-9.02953720 -31.32282448 4.29664469 18.000000 1607017195538219008.000000 4.296645 4.296645
-8.78079319 -31.38957024 4.24209118 13.000000 1607017195538219008.000000 4.242091 4.242091
-14.17893219 -28.92976952 4.29823160 5.000000 1607017195538219008.000000 4.298232 4.298232
-6.24914932 -28.16847992 4.28193331 10.000000 1607017195538219008.000000 4.281933 4.281933
-14.41441822 -26.54014587 4.22332859 10.000000 1607017195538219008.000000 4.223329 4.223329
-14.28123665 -26.57389069 4.21646261 9.000000 1607017195538219008.000000 4.216463 4.216463
-14.57518768 -26.45456886 4.22631741 19.000000 1607017195538219008.000000 4.226317 4.226317
-14.47504807 -26.46398354 4.22605181 22.000000 1607017195538219008.000000 4.226052 4.226052
-14.79870033 -26.37439537 4.24077129 4.000000 1607017195538219008.000000 4.240771 4.240771
-14.64344978 -26.37349319 4.22758675 21.000000 1607017195538219008.000000 4.227587 4.227587
-14.99282074 -26.23478127 4.29612207 25.000000 1607017195538219008.000000 4.296122 4.296122
-12.38642979 -25.81739044 4.25644016 9.000000 1607017195538219008.000000 4.256440 4.256440
-6.99808073 -24.71405792 4.20944309 3.000000 1607017195538219008.000000 4.209443 4.209443
-7.21852160 -24.68424034 4.29545355 4.000000 1607017195538219008.000000 4.295454 4.295454
-7.15741777 -24.64652061 4.23904848 19.666666 1607017195538219008.000000 4.239048 4.239048
-7.07952499 -24.66146851 4.21441936 15.000000 1607017195538219008.000000 4.214419 4.214419
-8.01861382 -24.58118439 4.24837017 8.000000 1607017195538219008.000000 4.248370 4.248370
-7.87347221 -24.52009392 4.24622297 24.000000 1607017195538219008.000000 4.246223 4.246223
-10.38555622 -22.26366425 4.22175789 22.000000 1607017195538219008.000000 4.221758 4.221758
-0.53822255 -21.24303246 4.25497532 16.333334 1607017195538219008.000000 4.254975 4.254975
-0.45301634 -21.23503494 4.26071548 20.000000 1607017195538219008.000000 4.260715 4.260715
-0.36514696 -21.25963402 4.26389027 14.666667 1607017195538219008.000000 4.263890 4.263890
-0.29003823 -21.24831963 4.26841974 3.000000 1607017195538219008.000000 4.268420 4.268420
-0.43929896 -21.18630409 4.27107668 20.000000 1607017195538219008.000000 4.271077 4.271077
-8.28519917 -19.32023811 4.20885134 5.000000 1607017195538219008.000000 4.208851 4.208851
-8.42281437 -19.24020767 4.26770210 14.000000 1607017195538219008.000000 4.267702 4.267702
-8.34791851 -19.25470924 4.29814625 2.000000 1607017195538219008.000000 4.298146 4.298146
-8.25952339 -19.25892639 4.23537970 5.000000 1607017195538219008.000000 4.235380 4.235380
-8.44989300 -19.12193489 4.24825096 10.100000 1607017195538219008.000000 4.248251 4.248251
-8.36136436 -19.13844299 4.24296284 22.791666 1607017195538219008.000000 4.242963 4.242963
-8.27309513 -19.14640808 4.21449995 21.333334 1607017195538219008.000000 4.214500 4.214500
-8.45549583 -19.08182144 4.25917244 28.900000 1607017195538219008.000000 4.259172 4.259172
-8.35630226 -19.09093094 4.20515728 39.500000 1607017195538219008.000000 4.205157 4.205157
-21.33922195 -15.93258572 4.26269484 17.000000 1607017195538219008.000000 4.262695 4.262695
-21.57974815 -15.73671627 4.25102139 4.000000 1607017195538219008.000000 4.251021 4.251021
-15.15651608 -14.50523567 4.29185295 8.000000 1607017195538219008.000000 4.291853 4.291853
-15.37941360 -14.30593395 4.25465775 14.000000 1607017195538219008.000000 4.254658 4.254658
-15.22300148 -14.35678959 4.25444984 11.500000 1607017195538219008.000000 4.254450 4.254450
-15.13424397 -14.30913925 4.21575308 21.000000 1607017195538219008.000000 4.215753 4.215753
-15.08913803 -14.37186432 4.21182203 14.000000 1607017195538219008.000000 4.211822 4.211822
-24.42594147 -13.72943687 4.22857380 13.500000 1607017195538219008.000000 4.228574 4.228574
-24.34811783 -13.76816273 4.25628376 15.000000 1607017195538219008.000000 4.256284 4.256284
-24.25832176 -13.74889946 4.21037865 13.000000 1607017195538219008.000000 4.210379 4.210379
-24.74287224 -13.60238075 4.26441574 9.000000 1607017195538219008.000000 4.264416 4.264416
-24.50827980 -13.68979359 4.25267363 9.000000 1607017195538219008.000000 4.252674 4.252674
-24.46217537 -13.64528465 4.24581814 6.000000 1607017195538219008.000000 4.245818 4.245818
-24.34753036 -13.66513062 4.24211836 15.000000 1607017195538219008.000000 4.242118 4.242118
-18.58961868 -13.35372925 4.24052811 8.500000 1607017195538219008.000000 4.240528 4.240528
-18.70750809 -13.20114899 4.24676895 15.000000 1607017195538219008.000000 4.246769 4.246769
-18.61436081 -13.23414707 4.25021362 15.500000 1607017195538219008.000000 4.250214 4.250214
-18.59254837 -13.25652504 4.21426439 30.500000 1607017195538219008.000000 4.214264 4.214264
-18.64917946 -13.17923450 4.22011757 18.000000 1607017195538219008.000000 4.220118 4.220118
-18.74366760 -13.06119919 4.25481510 15.000000 1607017195538219008.000000 4.254815 4.254815
-11.14505386 -12.23007774 4.29057360 5.000000 1607017195538219008.000000 4.290574 4.290574
-11.09922409 -12.26785278 4.29012394 5.000000 1607017195538219008.000000 4.290124 4.290124
-10.99148750 -12.23299694 4.24771881 2.000000 1607017195538219008.000000 4.247719 4.247719
-11.12047100 -12.12417603 4.23366404 13.000000 1607017195538219008.000000 4.233664 4.233664
-11.03146362 -12.14377785 4.20518637 4.000000 1607017195538219008.000000 4.205186 4.205186
-11.31171894 -12.05396366 4.29313898 5.000000 1607017195538219008.000000 4.293139 4.293139
-11.23866844 -12.05029583 4.25346470 14.500000 1607017195538219008.000000 4.253465 4.253465
-11.14624786 -12.03253937 4.26496696 21.666666 1607017195538219008.000000 4.264967 4.264967
-11.05463791 -12.04933929 4.24963188 9.333333 1607017195538219008.000000 4.249632 4.249632
-11.39638615 -11.96566772 4.24534559 9.000000 1607017195538219008.000000 4.245346 4.245346
-11.25303555 -11.98027706 4.25256014 14.000000 1607017195538219008.000000 4.252560 4.252560
-11.46295929 -8.54306126 4.27320242 50.000000 1607017195538219008.000000 4.273202 4.273202
-11.37002945 -8.55760860 4.20878601 15.000000 1607017195538219008.000000 4.208786 4.208786
-11.46971798 -8.48507500 4.24110126 24.250000 1607017195538219008.000000 4.241101 4.241101
-11.34539032 -8.49320793 4.24859667 19.500000 1607017195538219008.000000 4.248597 4.248597
-11.38407326 -8.38233566 4.28048611 18.000000 1607017195538219008.000000 4.280486 4.280486
-22.80698776 -7.65791798 4.29394531 21.000000 1607017195538219008.000000 4.293945 4.293945
-22.98933983 -7.50783777 4.25020123 5.000000 1607017195538219008.000000 4.250201 4.250201
-22.84620857 -7.55556965 4.29193401 21.000000 1607017195538219008.000000 4.291934 4.291934
-22.99131012 -7.42756128 4.24838495 5.000000 1607017195538219008.000000 4.248385 4.248385
-22.97356606 -7.34231615 4.24323511 10.000000 1607017195538219008.000000 4.243235 4.243235
-23.12990952 -7.24071884 4.24418640 4.500000 1607017195538219008.000000 4.244186 4.244186
-23.04327393 -7.25875664 4.24822187 13.000000 1607017195538219008.000000 4.248222 4.248222
-23.24041176 -7.10144520 4.24106741 9.000000 1607017195538219008.000000 4.241067 4.241067
-23.16877747 -7.12974930 4.21802235 11.333333 1607017195538219008.000000 4.218022 4.218022
-23.24129105 -7.05433846 4.23093176 12.125000 1607017195538219008.000000 4.230932 4.230932
-23.16934204 -7.09210443 4.24995422 13.000000 1607017195538219008.000000 4.249954 4.249954
-23.25038338 -6.93718290 4.22478390 14.500000 1607017195538219008.000000 4.224784 4.224784
-23.14713860 -6.96084166 4.25345755 26.000000 1607017195538219008.000000 4.253458 4.253458
-23.32447052 -6.87272644 4.22019100 5.000000 1607017195538219008.000000 4.220191 4.220191
-23.26301384 -6.85759354 4.22185183 16.500000 1607017195538219008.000000 4.221852 4.221852
-23.36005974 -6.75661945 4.21360636 5.000000 1607017195538219008.000000 4.213606 4.213606
30.10046005 -6.52306366 4.24862289 9.000000 1607017195538219008.000000 4.248623 4.248623
30.40277672 -6.48306179 4.24308491 9.000000 1607017195538219008.000000 4.243085 4.243085
30.36540985 -6.36082268 4.24749470 18.000000 1607017195538219008.000000 4.247495 4.247495
30.39729691 -6.27817822 4.24919939 27.000000 1607017195538219008.000000 4.249199 4.249199
30.48280334 -6.22169113 4.24893999 9.000000 1607017195538219008.000000 4.248940 4.248940
30.15218544 -5.96895027 4.26367855 8.000000 1607017195538219008.000000 4.263679 4.263679
-19.74760818 -5.06519842 4.26288319 17.500000 1607017195538219008.000000 4.262883 4.262883
-19.81187820 -4.99569893 4.26939440 17.000000 1607017195538219008.000000 4.269394 4.269394
-19.87173080 -4.85577822 4.26676178 5.000000 1607017195538219008.000000 4.266762 4.266762
35.93067169 -4.88739204 4.22772503 16.000000 1607017195538219008.000000 4.227725 4.227725
-19.95238686 -4.79739571 4.28185844 2.000000 1607017195538219008.000000 4.281858 4.281858
-20.01564407 -4.65761089 4.23117113 11.000000 1607017195538219008.000000 4.231171 4.231171
-19.99366570 -4.61528921 4.27115059 23.000000 1607017195538219008.000000 4.271151 4.271151
-20.03771782 -4.55602884 4.25672388 24.833334 1607017195538219008.000000 4.256724 4.256724
-19.99836349 -4.55223274 4.27532673 35.000000 1607017195538219008.000000 4.275327 4.275327
-20.09482574 -4.48795462 4.22118044 21.000000 1607017195538219008.000000 4.221180 4.221180
-25.33150864 -3.76323652 4.28948593 8.000000 1607017195538219008.000000 4.289486 4.289486
-11.16952038 -3.77232814 4.27300167 15.000000 1607017195538219008.000000 4.273002 4.273002
-25.22248840 -3.66437268 4.29670811 24.000000 1607017195538219008.000000 4.296708 4.296708
-25.18582344 -3.61885810 4.28587341 22.500000 1607017195538219008.000000 4.285873 4.285873
-25.25907516 -3.52362871 4.26005173 12.250000 1607017195538219008.000000 4.260052 4.260052
-25.19783783 -3.59810162 4.20400572 20.000000 1607017195538219008.000000 4.204006 4.204006
-25.35754776 -3.45801592 4.25920010 8.000000 1607017195538219008.000000 4.259200 4.259200
43.02534866 -3.13364315 4.23401308 8.000000 1607017195538219008.000000 4.234013 4.234013
43.04451370 -3.00696087 4.24337196 8.000000 1607017195538219008.000000 4.243372 4.243372
-17.45364761 -2.13908434 4.25001001 20.799999 1607017195538219008.000000 4.250010 4.250010
-17.60463715 -2.02550387 4.26940012 3.000000 1607017195538219008.000000 4.269400 4.269400
-17.50111389 -2.07154107 4.26243782 30.000000 1607017195538219008.000000 4.262438 4.262438
-17.44407463 -2.04576993 4.24888468 24.375000 1607017195538219008.000000 4.248885 4.248885
-17.63877487 -1.93210924 4.26040268 5.333333 1607017195538219008.000000 4.260403 4.260403
-17.57298660 -1.95796108 4.25781107 12.500000 1607017195538219008.000000 4.257811 4.257811
-17.47022820 -1.97735775 4.26219559 13.333333 1607017195538219008.000000 4.262196 4.262196
-17.64923286 -1.88757157 4.25641346 5.000000 1607017195538219008.000000 4.256413 4.256413
33.29267883 -1.50671291 4.22471428 16.000000 1607017195538219008.000000 4.224714 4.224714
33.29024506 -1.41796875 4.22720575 24.000000 1607017195538219008.000000 4.227206 4.227206
33.32983017 -1.35170650 4.22673941 24.000000 1607017195538219008.000000 4.226739 4.226739
37.19590759 -1.01227140 4.27682257 10.000000 1607017195538219008.000000 4.276823 4.276823
37.24317169 -0.94954896 4.25593233 8.000000 1607017195538219008.000000 4.255932 4.255932
37.19015121 -0.86578798 4.23756790 11.000000 1607017195538219008.000000 4.237568 4.237568
37.04026031 -0.75290203 4.26477671 18.000000 1607017195538219008.000000 4.264777 4.264777
37.04811859 -0.65611595 4.22924709 15.500000 1607017195538219008.000000 4.229247 4.229247
37.10927200 -0.67725182 4.28660059 10.000000 1607017195538219008.000000 4.286601 4.286601
-14.98733521 -0.52460265 4.21452951 11.000000 1607017195538219008.000000 4.214530 4.214530
37.16498947 -0.54750830 4.21857357 10.000000 1607017195538219008.000000 4.218574 4.218574
-15.14872932 -0.44823360 4.24262238 4.500000 1607017195538219008.000000 4.242622 4.242622
-15.05406570 -0.43308029 4.23574018 12.333333 1607017195538219008.000000 4.235740 4.235740
-14.96226978 -0.44316950 4.22667217 12.333333 1607017195538219008.000000 4.226672 4.226672
-15.05574799 -0.37782010 4.22871876 30.000000 1607017195538219008.000000 4.228719 4.228719
-14.96134758 -0.34506902 4.22896957 22.400000 1607017195538219008.000000 4.228970 4.228970
-15.06126881 -0.26016712 4.26807404 24.000000 1607017195538219008.000000 4.268074 4.268074
-14.95067406 -0.24439874 4.24060011 28.000000 1607017195538219008.000000 4.240600 4.240600
-23.05099297 -0.15102577 4.25067568 16.000000 1607017195538219008.000000 4.250676 4.250676
-15.13360023 -0.12675044 4.23059464 21.250000 1607017195538219008.000000 4.230595 4.230595
-15.04774570 -0.14486288 4.23988581 22.000000 1607017195538219008.000000 4.239886 4.239886
-14.97924519 -0.16999687 4.24037361 21.000000 1607017195538219008.000000 4.240374 4.240374
-23.21531296 -0.08593380 4.29605770 1.000000 1607017195538219008.000000 4.296058 4.296058
-23.13699722 -0.05159487 4.24059963 5.000000 1607017195538219008.000000 4.240600 4.240600
-23.04661942 -0.09561110 4.25051403 27.500000 1607017195538219008.000000 4.250514 4.250514
-15.06395531 -0.08133547 4.25281429 13.000000 1607017195538219008.000000 4.252814 4.252814
-23.09402847 0.03855586 4.23774147 19.000000 1607017195538219008.000000 4.237741 4.237741
42.44573212 0.44986391 4.22960424 8.000000 1607017195538219008.000000 4.229604 4.229604
42.44341278 0.57066727 4.23204708 8.000000 1607017195538219008.000000 4.232047 4.232047
-11.93788719 1.78898847 4.25302982 8.375000 1607017195538219008.000000 4.253030 4.253030
-11.85989571 1.75801277 4.25780058 13.750000 1607017195538219008.000000 4.257801 4.257801
29.15239525 1.75328457 4.24827480 11.000000 1607017195538219008.000000 4.248275 4.248275
29.25149536 1.74151361 4.23014450 8.500000 1607017195538219008.000000 4.230145 4.230145
-11.93443871 1.81769907 4.22448063 20.000000 1607017195538219008.000000 4.224481 4.224481
-11.85157108 1.84512269 4.25443125 23.569443 1607017195538219008.000000 4.254431 4.254431
-11.78496361 1.85811329 4.26148653 19.750000 1607017195538219008.000000 4.261487 4.261487
29.09672356 1.82818413 4.28370619 22.000000 1607017195538219008.000000 4.283706 4.283706
29.13558388 1.85573161 4.23543358 24.500000 1607017195538219008.000000 4.235434 4.235434
-11.82791710 1.95593011 4.25578022 27.666668 1607017195538219008.000000 4.255780 4.255780
-11.78463364 1.93450308 4.24630499 19.666666 1607017195538219008.000000 4.246305 4.246305
29.18001938 1.92393541 4.23789167 18.500000 1607017195538219008.000000 4.237892 4.237892
29.26459503 1.94805253 4.24205446 16.666666 1607017195538219008.000000 4.242054 4.242054
29.44213676 1.95888865 4.25421429 4.000000 1607017195538219008.000000 4.254214 4.254214
-11.90343571 2.01749301 4.27734423 10.000000 1607017195538219008.000000 4.277344 4.277344
-11.86982727 2.03335929 4.23068476 12.083333 1607017195538219008.000000 4.230685 4.230685
35.65557098 3.22616625 4.21687603 14.000000 1607017195538219008.000000 4.216876 4.216876
-19.87101746 3.35359764 4.20649385 11.000000 1607017195538219008.000000 4.206494 4.206494
-19.84877586 3.57287669 4.25337458 7.250000 1607017195538219008.000000 4.253375 4.253375
-19.79240036 3.57818770 4.28005505 16.500000 1607017195538219008.000000 4.280055 4.280055
-19.83916092 3.65198517 4.25635290 17.100000 1607017195538219008.000000 4.256353 4.256353
-19.76717949 3.65371442 4.26816654 22.625000 1607017195538219008.000000 4.268167 4.268167
-19.80849648 3.74844813 4.25187635 16.142857 1607017195538219008.000000 4.251876 4.251876
-19.78326607 3.73292994 4.24328566 24.166666 1607017195538219008.000000 4.243286 4.243286
-19.83830261 3.83071065 4.23965168 4.000000 1607017195538219008.000000 4.239652 4.239652
39.48463058 4.01427841 4.21905708 14.000000 1607017195538219008.000000 4.219057 4.219057
39.46869659 4.23702812 4.24581623 8.000000 1607017195538219008.000000 4.245816 4.245816
-16.66286659 4.94352341 4.21754122 5.000000 1607017195538219008.000000 4.217541 4.217541
-16.56954765 4.98597717 4.22459745 10.000000 1607017195538219008.000000 4.224597 4.224597
-16.54346275 5.03774309 4.23098087 10.000000 1607017195538219008.000000 4.230981 4.230981
27.79655457 5.00284767 4.29881001 24.000000 1607017195538219008.000000 4.298810 4.298810
-17.11243057 5.13207245 4.23750830 6.000000 1607017195538219008.000000 4.237508 4.237508
-16.55794907 5.14933872 4.26726055 5.400000 1607017195538219008.000000 4.267261 4.267261
-16.46439934 5.14446783 4.24279594 6.166667 1607017195538219008.000000 4.242796 4.242796
-16.26979446 5.14196110 4.21237373 7.000000 1607017195538219008.000000 4.212374 4.212374
27.68379784 5.15373373 4.22427702 19.000000 1607017195538219008.000000 4.224277 4.224277
27.72808266 5.10491276 4.26545858 15.000000 1607017195538219008.000000 4.265459 4.265459
27.84710312 5.18961477 4.22752714 4.000000 1607017195538219008.000000 4.227527 4.227527
-17.10100746 5.28350544 4.21633863 2.000000 1607017195538219008.000000 4.216339 4.216339
-17.07056046 5.26635790 4.20596123 5.000000 1607017195538219008.000000 4.205961 4.205961
-16.65386772 5.26340675 4.23711061 4.000000 1607017195538219008.000000 4.237111 4.237111
-16.54587555 5.25784683 4.24504757 7.250000 1607017195538219008.000000 4.245048 4.245048
-16.42827034 5.21257448 4.24994946 7.000000 1607017195538219008.000000 4.249949 4.249949
-17.16077995 5.30931377 4.26806068 2.000000 1607017195538219008.000000 4.268061 4.268061
-17.04815292 5.33940697 4.24330902 5.250000 1607017195538219008.000000 4.243309 4.243309
-16.95393753 5.37683535 4.22394943 5.000000 1607017195538219008.000000 4.223949 4.223949
-16.78453827 5.37799168 4.21264553 6.000000 1607017195538219008.000000 4.212646 4.212646
-16.61109543 5.35345221 4.21798992 3.000000 1607017195538219008.000000 4.217990 4.217990
-16.57116318 5.33684015 4.25102711 6.300000 1607017195538219008.000000 4.251027 4.251027
-16.44413567 5.34313965 4.28815031 3.000000 1607017195538219008.000000 4.288150 4.288150
-16.38218880 5.36416578 4.26031780 11.500000 1607017195538219008.000000 4.260318 4.260318
-16.10250282 5.39586020 4.24755144 5.000000 1607017195538219008.000000 4.247551 4.247551
-16.06277847 5.35346889 4.27771330 5.000000 1607017195538219008.000000 4.277713 4.277713
-16.95898819 5.45041466 4.29692650 5.000000 1607017195538219008.000000 4.296926 4.296926
-16.71759033 5.47160292 4.23114491 6.000000 1607017195538219008.000000 4.231145 4.231145
-16.67136002 5.48009157 4.23712921 6.500000 1607017195538219008.000000 4.237129 4.237129
-16.54999161 5.44743443 4.20483208 6.750000 1607017195538219008.000000 4.204832 4.204832
-16.45727348 5.45692253 4.24456930 7.500000 1607017195538219008.000000 4.244569 4.244569
-16.34273529 5.44218636 4.26603222 12.500000 1607017195538219008.000000 4.266032 4.266032
-16.23100090 5.47694159 4.25673819 9.700000 1607017195538219008.000000 4.256738 4.256738
-16.15552139 5.48688126 4.22780991 6.500000 1607017195538219008.000000 4.227810 4.227810
-16.05876350 5.46400499 4.25666952 6.857143 1607017195538219008.000000 4.256670 4.256670
-17.02019310 5.55353928 4.22576904 7.000000 1607017195538219008.000000 4.225769 4.225769
-16.70973969 5.51888037 4.23432636 6.000000 1607017195538219008.000000 4.234326 4.234326
-16.65004539 5.52898979 4.23997688 5.500000 1607017195538219008.000000 4.239977 4.239977
-16.52899933 5.53372002 4.26490402 5.000000 1607017195538219008.000000 4.264904 4.264904
-16.45325470 5.51812935 4.24673843 10.000000 1607017195538219008.000000 4.246738 4.246738
-16.36396408 5.52135944 4.20542336 6.000000 1607017195538219008.000000 4.205423 4.205423
-16.12620163 5.53122234 4.25695276 7.250000 1607017195538219008.000000 4.256953 4.256953
-16.07092857 5.54498672 4.24659538 12.250000 1607017195538219008.000000 4.246595 4.246595
-15.92767239 5.59558010 4.26337910 6.000000 1607017195538219008.000000 4.263379 4.263379
-16.75702095 5.62318563 4.28988600 10.000000 1607017195538219008.000000 4.289886 4.289886
-16.65113068 5.63219070 4.25170183 6.000000 1607017195538219008.000000 4.251702 4.251702
-16.55117416 5.61617231 4.26667500 6.000000 1607017195538219008.000000 4.266675 4.266675
-16.34136772 5.60187149 4.21025658 4.000000 1607017195538219008.000000 4.210257 4.210257
-16.25398636 5.64463043 4.20342922 7.666667 1607017195538219008.000000 4.203429 4.203429
-16.14487457 5.64161539 4.26627254 7.750000 1607017195538219008.000000 4.266273 4.266273
-16.05946732 5.64423943 4.25128555 20.000000 1607017195538219008.000000 4.251286 4.251286
-15.94915295 5.65304327 4.24579811 9.000000 1607017195538219008.000000 4.245798 4.245798
-15.87362480 5.65903568 4.24043417 5.000000 1607017195538219008.000000 4.240434 4.240434
-15.72736835 5.65868950 4.23127556 11.400000 1607017195538219008.000000 4.231276 4.231276
-15.61944294 5.65718031 4.26128340 7.833333 1607017195538219008.000000 4.261283 4.261283
-15.56330490 5.63207006 4.26432705 8.500000 1607017195538219008.000000 4.264327 4.264327
-16.62344360 5.78864288 4.25360394 2.000000 1607017195538219008.000000 4.253604 4.253604
-16.22535706 5.74089718 4.21894646 8.000000 1607017195538219008.000000 4.218946 4.218946
-16.16797638 5.73435116 4.26753712 10.000000 1607017195538219008.000000 4.267537 4.267537
-16.00734138 5.78749704 4.29402924 9.000000 1607017195538219008.000000 4.294029 4.294029
-15.93265915 5.75646591 4.25583076 7.000000 1607017195538219008.000000 4.255831 4.255831
-15.85344124 5.77087402 4.25130701 14.500000 1607017195538219008.000000 4.251307 4.251307
-15.75973320 5.73865747 4.22674704 10.800000 1607017195538219008.000000 4.226747 4.226747
-15.63409710 5.75394869 4.25310564 10.250000 1607017195538219008.000000 4.253106 4.253106
-15.56094742 5.74264717 4.27100182 6.000000 1607017195538219008.000000 4.271002 4.271002
-16.42757225 5.81642723 4.29723310 5.000000 1607017195538219008.000000 4.297233 4.297233
-16.25130463 5.83654022 4.27065229 6.666667 1607017195538219008.000000 4.270652 4.270652
-16.19252396 5.80170393 4.21196556 12.000000 1607017195538219008.000000 4.211966 4.211966
-15.99005318 5.80239534 4.23540449 7.000000 1607017195538219008.000000 4.235404 4.235404
-15.81868839 5.85765457 4.26252604 9.666667 1607017195538219008.000000 4.262526 4.262526
-15.73800755 5.85341120 4.24192810 8.250000 1607017195538219008.000000 4.241928 4.241928
-16.33936691 5.91480255 4.25996780 7.500000 1607017195538219008.000000 4.259968 4.259968
-16.09987259 5.96403027 4.29255772 7.000000 1607017195538219008.000000 4.292558 4.292558
-15.91282272 5.95576859 4.23606300 7.666667 1607017195538219008.000000 4.236063 4.236063
-15.74751568 5.94016647 4.23305273 11.666667 1607017195538219008.000000 4.233053 4.233053
-15.66516972 5.95503235 4.25545883 6.250000 1607017195538219008.000000 4.255459 4.255459
-15.56774139 5.91040087 4.25495863 4.000000 1607017195538219008.000000 4.254959 4.254959
-16.24661827 6.05017948 4.24869251 13.500000 1607017195538219008.000000 4.248693 4.248693
-16.06100464 6.04481602 4.24109793 16.000000 1607017195538219008.000000 4.241098 4.241098
-15.81029129 6.02251863 4.22888660 11.000000 1607017195538219008.000000 4.228887 4.228887
-15.76178169 6.05514240 4.22827435 10.500000 1607017195538219008.000000 4.228274 4.228274
-15.66738129 6.01551914 4.28148842 4.000000 1607017195538219008.000000 4.281488 4.281488
-15.83492661 6.13488770 4.23250484 10.500000 1607017195538219008.000000 4.232505 4.232505
-15.69023991 6.14554024 4.21843719 19.000000 1607017195538219008.000000 4.218437 4.218437
-16.20255661 6.29138803 4.25852060 10.000000 1607017195538219008.000000 4.258521 4.258521
-16.08698463 6.27940369 4.24983692 12.000000 1607017195538219008.000000 4.249837 4.249837
-15.95544720 6.23797083 4.24798155 10.000000 1607017195538219008.000000 4.247982 4.247982
-15.85022163 6.25212383 4.25501585 11.428572 1607017195538219008.000000 4.255016 4.255016
-15.74948692 6.26701832 4.27196693 7.250000 1607017195538219008.000000 4.271967 4.271967
-15.68973064 6.26862049 4.20696640 7.500000 1607017195538219008.000000 4.206966 4.206966
-16.39145279 6.32514429 4.27833080 4.000000 1607017195538219008.000000 4.278331 4.278331
-16.24928093 6.39742947 4.27820539 10.000000 1607017195538219008.000000 4.278205 4.278205
-16.12012863 6.34176111 4.22157145 12.000000 1607017195538219008.000000 4.221571 4.221571
-16.03795624 6.33147240 4.26154137 12.000000 1607017195538219008.000000 4.261541 4.261541
-15.95801640 6.32981205 4.27377033 8.000000 1607017195538219008.000000 4.273770 4.273770
-15.85199356 6.35370398 4.26765823 12.125000 1607017195538219008.000000 4.267658 4.267658
-15.73876572 6.30025339 4.27085972 6.000000 1607017195538219008.000000 4.270860 4.270860
-15.64492893 6.39783573 4.23437595 7.000000 1607017195538219008.000000 4.234376 4.234376
-16.46365356 6.41702032 4.28088999 11.000000 1607017195538219008.000000 4.280890 4.280890
-16.35102463 6.43179655 4.29958868 13.000000 1607017195538219008.000000 4.299589 4.299589
-16.20608139 6.42506266 4.22626781 18.000000 1607017195538219008.000000 4.226268 4.226268
-16.01404762 6.43279791 4.25966215 12.000000 1607017195538219008.000000 4.259662 4.259662
-15.91664314 6.45300961 4.28043318 16.000000 1607017195538219008.000000 4.280433 4.280433
-15.86276436 6.44327164 4.28162193 10.000000 1607017195538219008.000000 4.281622 4.281622
-15.75282764 6.43692207 4.26541948 8.250000 1607017195538219008.000000 4.265419 4.265419
-15.64512825 6.45300817 4.23863125 7.600000 1607017195538219008.000000 4.238631 4.238631
-16.20142365 6.58676100 4.28651142 19.000000 1607017195538219008.000000 4.286511 4.286511
-16.03985596 6.54525328 4.26060343 12.000000 1607017195538219008.000000 4.260603 4.260603
-15.91936302 6.54582739 4.24707317 3.000000 1607017195538219008.000000 4.247073 4.247073
-15.82449341 6.56360912 4.26961708 9.000000 1607017195538219008.000000 4.269617 4.269617
-15.71715164 6.56275272 4.23651409 5.000000 1607017195538219008.000000 4.236514 4.236514
-15.66794872 6.57706642 4.25730610 16.000000 1607017195538219008.000000 4.257306 4.257306
-16.33134842 6.62755013 4.24341774 4.000000 1607017195538219008.000000 4.243418 4.243418
-16.27690125 6.63248730 4.28782749 16.000000 1607017195538219008.000000 4.287827 4.287827
-16.12999344 6.64943647 4.20659924 10.000000 1607017195538219008.000000 4.206599 4.206599
-15.91673946 6.65458298 4.26800251 5.500000 1607017195538219008.000000 4.268003 4.268003
-15.85765171 6.65776920 4.28510666 5.500000 1607017195538219008.000000 4.285107 4.285107
-15.76286221 6.65670443 4.24415112 6.500000 1607017195538219008.000000 4.244151 4.244151
-15.66627407 6.65683317 4.25872040 1.000000 1607017195538219008.000000 4.258720 4.258720
-16.31303596 6.71655846 4.23193645 13.000000 1607017195538219008.000000 4.231936 4.231936
-15.95443726 6.75253296 4.26975727 4.000000 1607017195538219008.000000 4.269757 4.269757
-15.83092499 6.75987244 4.26211500 3.833333 1607017195538219008.000000 4.262115 4.262115
-15.78792953 6.77125168 4.28662443 9.000000 1607017195538219008.000000 4.286624 4.286624
-16.23172188 6.83932495 4.25007391 4.000000 1607017195538219008.000000 4.250074 4.250074
-15.85548210 6.83545971 4.27968884 3.000000 1607017195538219008.000000 4.279689 4.279689
-15.74305248 6.83551645 4.24255419 3.166667 1607017195538219008.000000 4.242554 4.242554
-15.75983143 6.93771887 4.27402115 4.800000 1607017195538219008.000000 4.274021 4.274021
-15.68333817 6.94177103 4.28748226 5.000000 1607017195538219008.000000 4.287482 4.287482
36.49543762 7.43510914 4.24885988 25.000000 1607017195538219008.000000 4.248860 4.248860
26.51492691 8.29977322 4.25967026 8.000000 1607017195538219008.000000 4.259670 4.259670
26.46215439 8.36827564 4.25712967 7.000000 1607017195538219008.000000 4.257130 4.257130
26.54277229 8.34393501 4.26199818 6.000000 1607017195538219008.000000 4.261998 4.261998
26.66552734 8.31687164 4.27790546 5.000000 1607017195538219008.000000 4.277905 4.277905
26.78741264 8.35677338 4.26104927 10.000000 1607017195538219008.000000 4.261049 4.261049
26.43812180 8.46606827 4.26238441 6.500000 1607017195538219008.000000 4.262384 4.262384
26.55163193 8.42673874 4.28105593 9.500000 1607017195538219008.000000 4.281056 4.281056
26.69780159 8.42741489 4.27186680 10.000000 1607017195538219008.000000 4.271867 4.271867
26.38221359 8.53395939 4.27688503 15.000000 1607017195538219008.000000 4.276885 4.276885
26.42541504 8.58066463 4.29901266 6.000000 1607017195538219008.000000 4.299013 4.299013
26.50843239 8.54812622 4.28915358 7.000000 1607017195538219008.000000 4.289154 4.289154
26.37098503 8.64719200 4.28363609 17.500000 1607017195538219008.000000 4.283636 4.283636
26.41388512 8.65091419 4.29889488 7.000000 1607017195538219008.000000 4.298895 4.298895
26.44511414 8.76812363 4.29316711 6.000000 1607017195538219008.000000 4.293167 4.293167
26.23160934 8.90929508 4.20331812 2.000000 1607017195538219008.000000 4.203318 4.203318
26.36970901 8.90654278 4.24335098 8.000000 1607017195538219008.000000 4.243351 4.243351
23.38171768 14.57903290 4.20688295 7.000000 1607017195538219008.000000 4.206883 4.206883
23.46733856 14.54984283 4.20014763 4.000000 1607017195538219008.000000 4.200148 4.200148
23.35093880 14.66753006 4.20827579 9.750000 1607017195538219008.000000 4.208276 4.208276
23.43869019 14.64110661 4.21431971 7.000000 1607017195538219008.000000 4.214320 4.214320
23.26014900 14.78495979 4.23100424 11.000000 1607017195538219008.000000 4.231004 4.231004
23.32390404 14.76945686 4.24432039 12.857142 1607017195538219008.000000 4.244320 4.244320
